786
      -0.1804536E+00      -0.6808811E-01       0.1413219E+00
       0.1989768E+00      -0.2867037E+00       0.1621687E+00
       0.1728587E+00      -0.2876361E+00       0.1719476E+00
       0.1967719E+00      -0.2735679E+00       0.1862484E+00
       0.1803124E+00      -0.2705987E+00       0.1615161E+00
       0.2171461E+00      -0.2997496E+00       0.1743173E+00
       0.2144070E+00      -0.2770050E+00       0.1871615E+00
       0.1952544E+00      -0.2988356E+00       0.1753562E+00
       0.2098620E+00      -0.2731104E+00       0.1673644E+00
       0.2176903E+00      -0.2842353E+00       0.1471480E+00
       0.2326149E+00      -0.2867671E+00       0.1588706E+00
       0.2023339E+00      -0.2676206E+00       0.1365414E+00
       0.1845756E+00      -0.2845411E+00       0.1469528E+00
       0.1516512E+00       0.1450672E+00       0.1436643E+00
       0.1317460E+00       0.1402470E+00       0.1444211E+00
       0.1397276E+00       0.1596607E+00       0.1376691E+00
       0.1017625E+00       0.1384115E+00       0.1523897E+00
       0.3248710E+00      -0.1932443E+00      -0.3789876E-01
       0.2795657E+00      -0.5648125E-01       0.1667519E+00
       0.2808881E+00      -0.4036398E-01       0.1440118E+00
       0.3015559E+00      -0.4217555E-01       0.1575042E+00
       0.1236416E+00       0.2940612E+00       0.1221311E+00
       0.1195244E+00       0.2686322E+00       0.1372933E+00
       0.1033395E+00       0.2961467E+00       0.1431190E+00
       0.1098857E+00       0.2827561E+00       0.1165537E+00
       0.1021075E+00       0.2743994E+00       0.1406386E+00
       0.1009377E+00       0.2535263E+00       0.1512793E+00
       0.8740664E-01       0.2806376E+00       0.1668824E+00
       0.2929792E+00      -0.9177341E-01       0.1290529E+00
       0.3124080E+00      -0.1146237E+00       0.1139322E+00
       0.2990870E+00      -0.1103542E+00       0.1330407E+00
       0.2897266E+00      -0.1072164E+00       0.1041944E+00
       0.1139564E+00       0.3015993E+00       0.1575246E+00
       0.1081136E+00       0.2791080E+00       0.1663644E+00
       0.1273563E+00       0.2962075E+00       0.1439561E+00
       0.3015577E+00      -0.1304895E-01       0.1575084E+00
       0.3155301E+00      -0.3965369E-01       0.1430568E+00
       0.3149749E+00      -0.3309729E-01       0.1664288E+00
      -0.5624086E-01       0.2218019E+00       0.1375104E+00
      -0.3796576E-01       0.2341508E+00       0.1250676E+00
      -0.5662304E-01       0.2176406E+00       0.1125120E+00
      -0.6730590E-01       0.2293125E+00       0.1243146E+00
      -0.3352603E-01       0.2351830E+00       0.1488848E+00
      -0.4887844E-01       0.1935061E+00       0.1500924E+00
      -0.4503084E-01       0.2147394E+00       0.1500240E+00
      -0.7017853E-01       0.2151954E+00       0.1500095E+00
      -0.4645412E-01       0.2374286E+00       0.1628037E+00
      -0.2342232E+00      -0.1475192E-02       0.1629115E+00
      -0.2529063E+00       0.1632120E-02       0.1507552E+00
      -0.2430615E+00      -0.9639374E-02       0.1754927E+00
      -0.2197568E+00      -0.3080139E-03       0.1757560E+00
      -0.2220774E+00      -0.1963057E-01       0.1760134E+00
      -0.2575323E+00       0.2564216E-02       0.1760315E+00
      -0.2379176E+00       0.1680092E-01       0.1744950E+00
      -0.2257721E+00       0.7694594E-02       0.1501483E+00
       0.2682345E+00      -0.1911862E+00      -0.1886173E-01
      -0.2186859E+00       0.2677889E-01       0.1744221E+00
       0.3319114E+00      -0.3750016E-01       0.1596800E+00
       0.1153067E+00      -0.1919235E+00       0.1538053E+00
       0.1154510E+00      -0.1750839E+00       0.1593203E+00
       0.9941281E-01      -0.2022217E+00       0.1581472E+00
       0.1079032E+00      -0.2161139E+00       0.1499425E+00
       0.1087257E+00      -0.2015310E+00       0.1748022E+00
       0.9641623E-01      -0.1909087E+00       0.1410961E+00
       0.1121728E+00      -0.1909418E+00       0.1248322E+00
       0.1948841E+00      -0.6886279E-01      -0.1239528E+00
       0.2163111E+00      -0.8904306E-01      -0.1236388E+00
       0.2167461E+00      -0.6874862E-01      -0.1249945E+00
       0.1240005E+00      -0.2057702E+00       0.1410774E+00
       0.4096071E-01      -0.1583291E+00       0.1839141E+00
       0.4108728E-01      -0.1718625E+00       0.1555962E+00
       0.4048064E-01      -0.1423098E+00       0.1593615E+00
       0.4752769E-01      -0.1341368E+00       0.1800038E+00
       0.5055499E-01      -0.1781084E+00       0.1748468E+00
       0.5998535E-01      -0.1751989E+00       0.1581963E+00
       0.5057340E-01      -0.1512037E+00       0.1402163E+00
       0.2680110E+00      -0.1919356E+00       0.1694235E+00
       0.2789111E+00      -0.2125470E+00       0.1678224E+00
       0.2606272E+00      -0.2130167E+00       0.1572169E+00
       0.2598362E+00      -0.1855993E+00       0.1890022E+00
       0.2752841E+00      -0.1729771E+00       0.1830703E+00
       0.2571814E+00      -0.1720425E+00       0.1747275E+00
       0.2432497E+00      -0.1902269E+00       0.1749091E+00
       0.2535139E+00      -0.1774012E+00       0.1507576E+00
      -0.2813829E+00      -0.1288724E-01       0.1449299E+00
      -0.2842760E+00      -0.3718551E-01       0.1470833E+00
      -0.2723805E+00      -0.3337419E-01       0.1275002E+00
      -0.2765277E+00      -0.5314320E-01       0.1271677E+00
      -0.2350334E+00      -0.7556015E-01       0.1584530E+00
      -0.2571148E+00      -0.2536879E-01       0.1753706E+00
       0.2941899E+00      -0.5606048E-01       0.1290666E+00
       0.2929679E+00      -0.3576231E-01       0.1290558E+00
       0.3126208E+00      -0.3634095E-01       0.1138904E+00
       0.2118959E+00       0.2960075E-01       0.1583273E+00
       0.2163814E+00      -0.1033351E-03       0.1492163E+00
       0.2062378E+00       0.2021739E-01       0.1416494E+00
       0.2268597E+00       0.3791261E-01       0.1416524E+00
       0.2230520E+00       0.4379391E-01       0.1583144E+00
       0.2076551E+00       0.5341864E-01       0.1561831E+00
       0.1942586E+00       0.3269381E-01       0.1751635E+00
       0.1845387E+00       0.3776755E-01       0.1558071E+00
       0.2031144E+00       0.4362017E-01       0.1416307E+00
      -0.1977720E+00       0.2071576E+00       0.1608044E+00
      -0.2143619E+00       0.2052474E+00       0.1761525E+00
      -0.2216434E+00       0.1856764E+00       0.1598556E+00
      -0.2287186E+00       0.2157166E+00       0.1594825E+00
      -0.1987982E+00       0.2161903E+00       0.1440376E+00
      -0.1904815E+00       0.1979125E+00       0.1443140E+00
      -0.1891535E+00       0.1907565E+00       0.1621617E+00
      -0.2538357E-01       0.1896525E+00       0.1336059E+00
      -0.2823288E-01       0.1987233E+00       0.1504878E+00
      -0.4114118E-01       0.2084953E+00       0.1259586E+00
      -0.1928348E-01       0.2084105E+00       0.1235535E+00
      -0.2907961E-01       0.1789322E+00       0.1122708E+00
      -0.8767951E-02       0.1855550E+00       0.1249419E+00
       0.1960312E+00      -0.2647126E+00       0.1124422E+00
       0.1787152E+00      -0.2468839E+00       0.1013528E+00
       0.1806716E+00      -0.2453281E+00       0.1267967E+00
       0.1983949E+00      -0.2464740E+00       0.1006624E+00
      -0.3802024E-01       0.1866103E+00       0.1224535E+00
       0.1591573E+00      -0.8027253E-01       0.1368832E+00
       0.1703107E+00      -0.6840581E-01       0.1245679E+00
       0.1583848E+00      -0.5334951E-01       0.1426706E+00
       0.1569542E+00      -0.7959115E-01       0.1129074E+00
       0.1483387E+00      -0.6607021E-01       0.1247008E+00
       0.1250000E+00       0.3211325E+00      -0.1355662E+00
       0.1476564E+00       0.3220342E+00      -0.1342137E+00
       0.1672594E+00      -0.9636073E-01       0.1245305E+00
       0.1560672E+00      -0.6106703E-01       0.1582352E+00
       0.1366196E+00      -0.7939240E-01       0.1501428E+00
      -0.1776930E+00      -0.9723994E-01       0.1734159E+00
      -0.1542196E+00      -0.1218847E+00       0.1743455E+00
      -0.1546071E+00      -0.1017131E+00       0.1769964E+00
      -0.1591382E+00      -0.1246254E+00       0.1485568E+00
       0.9999998E-01       0.3211325E+00      -0.1355662E+00
      -0.1736631E+00      -0.1073377E+00       0.1581620E+00
      -0.1864956E+00      -0.1218871E+00       0.1583117E+00
      -0.2033132E+00      -0.1281569E+00       0.1414582E+00
      -0.1916505E+00      -0.8547696E-01       0.1497967E+00
      -0.6077335E-01       0.1319601E+00       0.1595278E+00
      -0.5018099E-01       0.1315084E+00       0.1438095E+00
      -0.3517386E-01       0.1381246E+00       0.1637668E+00
      -0.4774671E-01       0.1139084E+00       0.1524842E+00
      -0.5274096E-01       0.1125873E+00       0.1773369E+00
      -0.6812166E-01       0.1119842E+00       0.1640639E+00
      -0.7059807E-01       0.1348195E+00       0.1764190E+00
      -0.4343850E-01       0.1471187E+00       0.1508318E+00
      -0.2361910E+00       0.2877929E+00       0.1299869E+00
      -0.2375948E+00       0.2655119E+00       0.1321530E+00
      -0.2356602E+00       0.2715779E+00       0.1102176E+00
       0.3211325E+00      -0.1000000E+00      -0.1355662E+00
       0.3012861E+00      -0.1125000E+00      -0.1337620E+00
      -0.2369005E+00       0.3144948E+00       0.1325910E+00
       0.1653343E+00      -0.2319747E+00       0.1236654E+00
       0.1858915E+00      -0.2273588E+00       0.1262175E+00
      -0.2180451E+00       0.2934838E+00       0.1303724E+00
      -0.2377146E+00       0.3103414E+00       0.1123958E+00
      -0.7902946E-02       0.1946606E+00       0.1414420E+00
      -0.2382054E-01       0.2145326E+00       0.1495211E+00
      -0.2070575E-01       0.1982667E+00       0.1758648E+00
      -0.3984903E-01       0.1965067E+00       0.1745277E+00
      -0.1112151E-01       0.1996783E+00       0.1576874E+00
      -0.3123363E-01       0.1793490E+00       0.1504449E+00
      -0.2613480E+00       0.8437271E-01       0.1440227E+00
      -0.2532624E+00       0.7497907E-01       0.1260193E+00
      -0.2779896E+00       0.7740831E-01       0.1375386E+00
      -0.2718012E+00       0.1007472E+00       0.1275241E+00
      -0.2773297E+00       0.7575628E-01       0.1695353E+00
      -0.2566184E+00       0.8416373E-01       0.1759985E+00
      -0.2721662E+00       0.9524604E-01       0.1668329E+00
      -0.2873623E+00       0.8733849E-01       0.1576747E+00
      -0.2447561E+00       0.9151942E-01       0.1507334E+00
      -0.1250000E+00      -0.3355663E+00       0.2211324E+00
      -0.5903467E-01      -0.1051491E+00       0.1502439E+00
      -0.7926268E-01      -0.1001112E+00       0.1148694E+00
      -0.8768350E-01      -0.8583706E-01       0.1265212E+00
       0.1674141E+00      -0.2282102E+00       0.1002252E+00
      -0.7647596E-01      -0.8725171E-01       0.1531480E+00
      -0.9719998E-01      -0.8535760E-01       0.1438535E+00
       0.2645806E+00      -0.3455513E-01       0.1352858E+00
       0.2727160E+00      -0.5237940E-01       0.1149908E+00
       0.2702192E+00      -0.2758428E-01       0.1109074E+00
       0.2528849E+00      -0.5430289E-01       0.1255897E+00
       0.2617734E+00      -0.4568116E-01       0.1528219E+00
       0.1888788E+00      -0.2971307E+00       0.1319685E+00
       0.2104807E+00      -0.3154779E+00       0.1432507E+00
       0.1988659E+00      -0.3134294E+00       0.1265976E+00
       0.2073620E+00      -0.2983364E+00       0.1338902E+00
       0.4267205E-01       0.1308168E+00       0.1786508E+00
       0.5918080E-01       0.1163657E+00       0.1847956E+00
       0.5980718E-01       0.1121720E+00       0.1643474E+00
       0.6684344E-01       0.1431144E+00       0.1693847E+00
       0.2871749E+00      -0.4141738E-01      -0.5791125E-01
       0.2724648E+00      -0.6744818E-01      -0.3942311E-01
       0.2697779E+00      -0.4853321E-01      -0.5780278E-01
       0.2896173E+00      -0.6092170E-01      -0.6062916E-01
       0.8564495E-01       0.1533571E+00       0.1766029E+00
       0.5386517E-01       0.1300320E+00       0.1575381E+00
       0.4528017E-01       0.1550326E+00       0.1595822E+00
       0.7622954E-01       0.1372247E+00       0.1842494E+00
       0.1365741E-01      -0.8798125E-01       0.1747310E+00
       0.3105727E-01      -0.9756428E-01       0.1768631E+00
       0.4221100E-01      -0.1005956E+00       0.1423516E+00
       0.3734598E-01      -0.7898087E-01       0.1562347E+00
       0.5018467E-01      -0.9477995E-01       0.1660503E+00
       0.1796993E+00       0.1761618E+00       0.1713475E+00
       0.2122161E+00      -0.2830206E+00       0.1157919E+00
       0.1900363E+00       0.1479639E+00       0.1641305E+00
       0.1788938E+00       0.1441995E+00       0.1778922E+00
       0.1903460E+00       0.1759644E+00       0.1475320E+00
       0.1589629E+00       0.1710432E+00       0.1394430E+00
      -0.4749809E-01      -0.1948914E+00       0.1577104E+00
      -0.3810672E-01      -0.1996102E+00       0.1732488E+00
      -0.1141922E-01      -0.2021949E+00       0.1573570E+00
      -0.1679565E-01      -0.1845647E+00       0.1521534E+00
      -0.1730662E-01      -0.2016261E+00       0.1759473E+00
      -0.3064734E-01      -0.1916609E+00       0.1421771E+00
      -0.2457601E-01      -0.1783417E+00       0.1746513E+00
      -0.6536754E-02      -0.1814681E+00       0.1249681E+00
      -0.3097297E-01      -0.1833190E+00       0.1241978E+00
      -0.2057851E-01      -0.2061387E+00       0.1273117E+00
       0.7035639E-03      -0.1870085E+00       0.1409596E+00
      -0.1670356E+00       0.1865622E+00       0.1415204E+00
      -0.1843644E+00       0.1557956E+00       0.1787149E+00
      -0.1844048E+00       0.1829785E+00       0.1788241E+00
       0.1979646E+00      -0.2406967E+00       0.1887430E+00
       0.1754459E+00      -0.2568125E+00       0.1767599E+00
       0.1836293E+00      -0.2386576E+00       0.2013725E+00
       0.1818452E+00      -0.2385564E+00       0.1769784E+00
      -0.1745116E+00       0.1585551E+00       0.1497584E+00
       0.1079260E+00       0.9375650E-01       0.1252091E+00
       0.1393691E+00       0.9960745E-01       0.1340942E+00
       0.1170281E+00       0.1178439E+00       0.1166709E+00
       0.1205310E+00       0.9669299E-01       0.1410455E+00
       0.1244871E+00       0.9002237E-01       0.1132067E+00
       0.1394359E+00       0.8538712E-01       0.1017132E+00
       0.1384370E+00       0.8121512E-01       0.1264432E+00
       0.1715311E+00      -0.2819378E+00       0.1190088E+00
       0.1521110E+00      -0.2707276E+00       0.1109748E+00
       0.1748998E+00      -0.2646779E+00       0.1115862E+00
       0.1658957E+00      -0.2894748E+00       0.1036015E+00
       0.1592528E+00       0.8291716E-01       0.1483411E+00
       0.1517145E+00       0.1010576E+00       0.1502129E+00
       0.1434370E+00       0.1198866E+00       0.1493941E+00
       0.1336003E+00       0.9707075E-01       0.1592262E+00
       0.1219268E+00       0.1177559E+00       0.1529151E+00
       0.1328284E+00       0.1219328E+00       0.1285875E+00
      -0.6549809E-02       0.2542786E+00       0.1523410E+00
      -0.2986394E-01       0.2502062E+00       0.1262802E+00
      -0.1075570E-01       0.2346864E+00       0.1507773E+00
       0.1223390E-01       0.2537887E+00       0.1509538E+00
      -0.4125041E-02       0.2501876E+00       0.1267794E+00
      -0.7277244E-01      -0.2466843E+00      -0.1072185E+00
      -0.6908999E-01      -0.2374410E+00      -0.1231989E+00
      -0.8775467E-01      -0.2346760E+00      -0.1014016E+00
      -0.6238263E-01      -0.2232105E+00      -0.1000617E+00
       0.1587215E+00      -0.2503803E+00       0.1270147E+00
       0.1546252E+00      -0.2485818E+00       0.1005268E+00
      -0.1287872E+00       0.1455873E+00       0.1362958E+00
      -0.1327039E+00       0.1305670E+00       0.1579840E+00
      -0.1091247E+00       0.1469151E+00       0.1242406E+00
      -0.9789571E-01       0.1346771E+00       0.1791651E+00
       0.2754935E+00      -0.9457527E-01      -0.3193218E-01
       0.2006003E+00      -0.2964474E-01       0.1372208E+00
       0.1872631E+00      -0.3545333E-01       0.1261232E+00
       0.1808626E+00      -0.1619866E-01       0.1490692E+00
       0.1907006E+00      -0.3862070E-01       0.1492495E+00
       0.2137732E+00      -0.1992633E-01       0.1260190E+00
      -0.2846018E+00      -0.1114690E+00       0.1654157E+00
      -0.2985187E+00      -0.9876731E-01       0.1711133E+00
      -0.2740355E+00      -0.1018317E+00       0.1857009E+00
      -0.2796561E+00      -0.8272218E-01       0.1664382E+00
      -0.2572470E+00      -0.1177303E+00       0.1770404E+00
      -0.2690432E+00      -0.1244970E+00       0.1601888E+00
      -0.2812632E+00      -0.9412830E-01       0.1452917E+00
      -0.2841966E+00      -0.1367675E+00       0.1471353E+00
      -0.2800280E+00      -0.1401681E+00       0.1677105E+00
      -0.2996453E+00      -0.9995379E-01       0.1449932E+00
      -0.3015666E+00      -0.1136282E+00       0.1574612E+00
      -0.2833709E+00      -0.1153962E+00       0.1470832E+00
      -0.1619161E+00       0.4559597E-01       0.1269721E+00
      -0.1443929E+00       0.3945047E-01       0.1409866E+00
      -0.1531250E+00       0.2181579E-01       0.1425252E+00
      -0.1624976E+00       0.2249750E-01       0.1255157E+00
      -0.1352025E+00       0.1612010E-01       0.1274420E+00
      -0.1287645E+00       0.3685297E-01       0.1276536E+00
       0.3012297E+00      -0.3337608E+00       0.1877107E-01
      -0.1297050E+00       0.2879735E-01       0.1529905E+00
       0.6264737E-01      -0.1414125E+00       0.1265346E+00
       0.1011308E+00      -0.1667157E+00       0.1242598E+00
       0.8438448E-01      -0.1550698E+00       0.1121200E+00
       0.9197684E-01      -0.1396964E+00       0.1198684E+00
       0.2674563E+00       0.1546649E+00       0.1351342E+00
       0.2749850E+00       0.1439462E+00       0.1495580E+00
       0.2819614E+00       0.1664482E+00       0.1446538E+00
       0.2564898E+00       0.1520482E+00       0.1589354E+00
       0.2698621E+00       0.1805457E+00       0.1333279E+00
       0.2685775E+00       0.1331068E+00       0.1342764E+00
      -0.2276129E+00       0.8994909E-01       0.1417592E+00
      -0.2165125E+00       0.1266053E+00       0.1775109E+00
       0.2470003E+00       0.1163018E-03       0.1433248E+00
       0.2600176E+00      -0.1344498E-01       0.1428076E+00
       0.2818386E+00      -0.1282599E-01       0.1454754E+00
       0.1529108E+00      -0.3000494E+00       0.1740783E+00
       0.1567109E+00      -0.2787483E+00       0.1663221E+00
       0.1391384E+00      -0.2886024E+00       0.1727738E+00
       0.1611363E+00      -0.2845132E+00       0.1905244E+00
       0.1774326E+00      -0.2970034E+00       0.1919451E+00
       0.1328584E+00      -0.3016030E+00       0.1575253E+00
       0.1505022E+00      -0.2973424E+00       0.1433371E+00
       0.1470346E+00      -0.2971466E+00       0.1927299E+00
       0.1406568E+00      -0.3144172E+00       0.1761343E+00
       0.2024979E+00      -0.3357289E+00       0.1244324E-02
       0.2244006E+00      -0.3323160E+00      -0.1707847E-01
       0.1982380E+00      -0.3261608E+00      -0.2345649E-01
      -0.2525325E-01       0.2059887E+00       0.9984700E-01
      -0.4683223E-01       0.2083452E+00       0.7501445E-01
      -0.2153889E-01       0.2080515E+00       0.7591778E-01
      -0.3396477E-01       0.1865117E+00       0.7654098E-01
       0.1530795E+00      -0.3148722E+00       0.1960887E+00
      -0.2118286E+00      -0.7014335E-01       0.1496622E+00
      -0.1982767E+00      -0.8191514E-01       0.1752492E+00
      -0.9742515E-01      -0.2612489E+00       0.2306012E+00
      -0.2187459E+00      -0.7223577E-01       0.1749642E+00
      -0.2838786E-01       0.1266204E+00       0.1231634E+00
      -0.2884528E-01       0.1287731E+00       0.1463504E+00
      -0.1695377E-01       0.1112723E+00       0.9758151E-01
       0.2298388E+00      -0.9971348E-01       0.1377957E+00
       0.2283730E+00      -0.1148682E+00       0.1229203E+00
       0.2101214E+00      -0.1074156E+00       0.1409234E+00
       0.2051702E+00      -0.9533641E-01       0.1222328E+00
       0.2201602E+00      -0.1038941E+00       0.1582374E+00
       0.2261123E+00      -0.8690514E-01       0.1241711E+00
       0.2340478E+00      -0.7019065E-01       0.1402627E+00
       0.2451283E+00      -0.9884962E-01       0.1274291E+00
       0.2359692E+00      -0.1153316E+00       0.1490827E+00
      -0.2983504E-01       0.2203684E+00       0.1745663E+00
       0.1958467E+00      -0.3283567E+00       0.2210791E+00
       0.1773389E+00      -0.3220352E+00       0.2341973E+00
      -0.2819836E-01       0.2381610E+00       0.1753024E+00
      -0.2177919E-01       0.2566213E+00       0.1760118E+00
      -0.4894965E-01       0.2204808E+00       0.1750150E+00
      -0.3211324E+00       0.0000000E+00       0.2355662E+00
       0.2681586E+00      -0.1772545E+00       0.1360899E+00
       0.2424826E+00      -0.1952035E+00       0.1499347E+00
       0.2469582E+00      -0.2138787E+00       0.1398264E+00
       0.2666721E+00      -0.1919311E+00       0.1281010E+00
       0.2642999E+00      -0.2182144E+00       0.1383728E+00
       0.1880585E+00       0.8205056E-01       0.1419688E+00
       0.1671947E+00       0.6508289E-01       0.1443277E+00
       0.1777367E+00       0.9585959E-01       0.1595826E+00
       0.1903162E+00       0.1119605E+00       0.1493812E+00
       0.2920046E+00      -0.2491177E+00      -0.4409045E-01
       0.3097951E+00      -0.2508247E+00      -0.5931700E-01
       0.2907633E+00      -0.2653306E+00      -0.5232248E-01
       0.2885592E+00      -0.2511358E+00      -0.6289192E-01
       0.3007357E+00      -0.2567466E+00      -0.2704534E-01
       0.3040749E+00      -0.2360527E+00      -0.4951748E-01
       0.3092394E+00      -0.2706271E+00      -0.4496741E-01
       0.2939279E+00      -0.2333385E+00      -0.3358483E-01
       0.2756021E+00      -0.2531411E+00      -0.3491982E-01
      -0.1985733E+00       0.1135382E+00       0.2002611E+00
       0.3127602E+00      -0.2379580E+00      -0.2883651E-01
       0.2875873E+00       0.2105589E+00       0.1021167E+00
       0.3099976E+00       0.2089095E+00       0.9228270E-01
       0.2922848E+00       0.1912229E+00       0.1008741E+00
       0.2983736E+00       0.1927314E+00       0.8150425E-01
       0.2861299E+00       0.2015752E+00       0.1219204E+00
       0.2711553E+00       0.1907712E+00       0.1097779E+00
       0.2724977E+00       0.1972805E+00       0.8647690E-01
      -0.2436589E+00      -0.2846867E+00       0.1530179E+00
      -0.2344851E+00      -0.2685632E+00       0.1534874E+00
      -0.2121086E+00      -0.2806513E+00       0.1457854E+00
      -0.2134612E+00      -0.3131293E+00       0.1739866E+00
      -0.2305365E+00      -0.3178374E+00       0.1694368E+00
      -0.2169890E+00      -0.3013656E+00       0.1594196E+00
      -0.2086540E+00      -0.2788177E+00       0.1668866E+00
       0.3433930E-01       0.2623425E+00       0.1558554E+00
       0.4176819E-01       0.2793346E+00       0.1635565E+00
       0.2553108E-01       0.2558441E+00       0.1770950E+00
       0.4940047E-01       0.2584972E+00       0.1762818E+00
       0.2633174E-01       0.2706458E+00       0.1329816E+00
       0.4495534E-01       0.2749172E+00       0.1852158E+00
       0.1892524E-01       0.2787554E+00       0.1665690E+00
       0.2924110E+00       0.1850153E+00       0.1761221E+00
       0.2877040E+00       0.2017653E+00       0.1988898E+00
       0.2954039E+00       0.2115233E+00       0.1844624E+00
       0.2745443E+00       0.2019588E+00       0.1841028E+00
       0.2877983E+00       0.1902758E+00       0.1578920E+00
       0.3142648E+00       0.1802503E+00       0.1541895E+00
       0.3015883E+00       0.1634738E+00       0.1574689E+00
       0.2993352E+00       0.2048337E+00       0.1657968E+00
       0.2739795E+00       0.1716154E+00       0.1876997E+00
       0.2708691E+00       0.1829479E+00       0.1648220E+00
       0.2788120E+00       0.1542059E+00       0.1672687E+00
       0.2960678E+00       0.5542560E-01       0.1955052E+00
       0.3146472E+00       0.7590887E-01       0.1900026E+00
       0.2968841E+00       0.7604642E-01       0.2016341E+00
       0.3135649E+00       0.9172760E-01       0.1739726E+00
       0.2795669E+00       0.5857999E-01       0.1667615E+00
       0.2744388E+00       0.4603126E-01       0.1863836E+00
       0.2992010E+00       0.4830986E-01       0.1762045E+00
      -0.2419310E+00       0.1127248E+00       0.2004277E+00
      -0.4772804E-01      -0.1167815E+00       0.1270389E+00
      -0.3354125E-01      -0.1173428E+00       0.1439357E+00
      -0.4624559E-01      -0.9585804E-01       0.1882304E+00
      -0.3249445E-01      -0.1133547E+00       0.1769839E+00
      -0.7061705E-02       0.6873198E-01       0.1608884E+00
       0.1139129E-01       0.7008556E-01       0.1568983E+00
       0.2880691E-01       0.7460769E-01       0.1606850E+00
       0.3025679E-01       0.5868045E-01       0.1709376E+00
      -0.3093255E+00      -0.2528476E+00      -0.6158365E-02
      -0.3000025E+00      -0.2560176E+00      -0.2335652E-01
      -0.3110510E+00      -0.2727474E+00      -0.1570215E-01
      -0.3260326E+00      -0.2601526E+00      -0.1775735E-01
       0.1322751E-01       0.7130991E-01       0.1751121E+00
       0.3015583E+00       0.4217586E-01       0.1575102E+00
       0.2978800E+00       0.2757990E-01       0.1433122E+00
       0.3330730E+00       0.1068350E+00      -0.1011342E+00
      -0.2245640E+00       0.1267093E+00       0.1978348E+00
      -0.2210716E+00       0.1058633E+00       0.1998471E+00
       0.2579930E+00       0.5118518E-01       0.1769404E+00
      -0.4865903E-01       0.9339256E-01       0.1623012E+00
      -0.7390191E-01       0.1118901E+00       0.1887561E+00
       0.1168975E+00       0.2498317E+00       0.1433781E+00
       0.1479633E+00       0.2475394E+00       0.1260258E+00
       0.1225210E+00       0.2507869E+00       0.1237860E+00
       0.1248714E+00       0.2651384E+00       0.1121797E+00
       0.1706891E+00       0.2763795E+00       0.1268989E+00
       0.1617346E+00       0.2602230E+00       0.1192832E+00
       0.1461337E+00       0.2709185E+00       0.1143771E+00
       0.1103838E+00       0.2368696E+00       0.1745114E+00
      -0.2415438E+00       0.8917401E-01       0.2007291E+00
      -0.2569592E+00       0.1031592E+00       0.1759976E+00
       0.9996839E-01       0.2505166E+00       0.1261075E+00
       0.2853005E+00       0.2865935E+00       0.1751448E+00
       0.2712403E+00       0.2937964E+00       0.1971550E+00
       0.2879124E+00       0.3067343E+00       0.1798360E+00
       0.2686898E+00       0.2997721E+00       0.1782768E+00
       0.2916303E+00       0.3002986E+00       0.1614955E+00
       0.2900893E+00       0.2721144E+00       0.1518924E+00
       0.3032604E+00       0.2793601E+00       0.1776395E+00
       0.3151543E+00       0.2982728E+00       0.1765265E+00
      -0.1350742E+00       0.2651970E+00       0.1353528E+00
      -0.1260436E+00       0.2509107E+00       0.1511512E+00
      -0.1648157E+00       0.3013812E+00       0.1578384E+00
      -0.1376025E+00       0.3010248E+00       0.1563985E+00
      -0.1484284E+00       0.2979456E+00       0.1433503E+00
       0.1228883E+00      -0.1454015E+00       0.1084145E+00
       0.1313507E+00      -0.1480179E+00       0.1229714E+00
       0.8169635E-01      -0.6087722E-01       0.1951382E+00
       0.7968789E-01      -0.2932084E-01       0.2013370E+00
       0.6669492E-01      -0.4855671E-01       0.1944949E+00
       0.7700630E-01      -0.6202988E-01       0.2166442E+00
       0.6232838E-01      -0.7394599E-01       0.2096896E+00
       0.5348971E-01      -0.5172731E-01       0.2099693E+00
       0.7233025E-01      -0.4204713E-01       0.2137160E+00
       0.5385419E-01      -0.6412075E-01       0.1898686E+00
      -0.2764997E+00      -0.3194037E+00      -0.1172807E+00
      -0.2624492E+00      -0.3230730E+00      -0.1049120E+00
      -0.2689712E+00      -0.2959579E+00      -0.1149715E+00
      -0.2784598E+00      -0.3121617E+00      -0.9589688E-01
      -0.2737298E+00      -0.2759926E+00      -0.1109202E+00
      -0.2681736E+00      -0.2812496E+00      -0.9593981E-01
      -0.2485538E+00      -0.2786856E+00      -0.1025533E+00
      -0.2576142E+00      -0.2966430E+00      -0.9924193E-01
      -0.2424040E+00      -0.2938976E+00      -0.1165476E+00
      -0.2779910E+00      -0.2935284E+00      -0.1019489E+00
      -0.1505203E+00      -0.2365164E+00       0.1630822E+00
      -0.1486367E+00      -0.2141726E+00       0.1581388E+00
      -0.1391243E+00      -0.2192902E+00       0.1411442E+00
      -0.1668975E+00      -0.2237973E+00       0.1419922E+00
      -0.1310779E+00      -0.2338502E+00       0.1587825E+00
      -0.1516436E+00      -0.2223615E+00       0.1741566E+00
      -0.1760812E+00      -0.2283842E+00       0.1637304E+00
      -0.1335729E+00      -0.2537585E+00       0.1593995E+00
       0.1859402E+00      -0.5941761E-01      -0.1374877E+00
      -0.1489842E+00      -0.2566477E+00       0.1764369E+00
       0.1442993E+00      -0.2753871E+00       0.1285438E+00
       0.1372088E+00      -0.2806928E+00       0.1463108E+00
       0.1331448E+00      -0.2933514E+00       0.1291219E+00
       0.1647918E+00      -0.2847083E+00       0.1470844E+00
       0.1613232E+00      -0.2674833E+00       0.1379225E+00
       0.1295606E+00      -0.2726119E+00       0.1154836E+00
       0.1514475E+00      -0.2930594E+00       0.1209475E+00
       0.1451149E+00      -0.2915629E+00       0.1012221E+00
      -0.2819614E+00      -0.1930172E+00       0.1463510E+00
      -0.2593892E+00      -0.1833333E+00       0.1480079E+00
      -0.2653191E+00      -0.2002751E+00       0.1367362E+00
      -0.2866948E+00      -0.2010149E+00       0.1647733E+00
      -0.2691352E+00      -0.1560290E+00       0.1599334E+00
      -0.2534550E+00      -0.1675727E+00       0.1594069E+00
      -0.2781008E+00      -0.1824847E+00       0.1667122E+00
      -0.2566454E+00      -0.1770148E+00       0.1755524E+00
      -0.2417474E+00      -0.1870945E+00       0.1591983E+00
      -0.2670116E+00      -0.8527294E-02       0.1330585E+00
      -0.2645803E+00      -0.2769992E-01       0.1114170E+00
      -0.2731422E+00      -0.9361985E-02       0.1109576E+00
       0.1734046E+00      -0.8141688E-01      -0.1249681E+00
       0.1549558E+00      -0.6994721E-01      -0.1315599E+00
      -0.2652514E+00       0.6888093E-02       0.1166955E+00
      -0.2936977E+00       0.9710580E-02       0.1298571E+00
      -0.2697392E+00      -0.7402069E-03       0.1603690E+00
       0.1169278E+00      -0.1429505E+00       0.1749485E+00
       0.1308663E+00      -0.1415223E+00       0.1879551E+00
       0.1229064E+00      -0.1207740E+00       0.1755983E+00
      -0.4910706E-01       0.4955740E-01       0.1915618E+00
      -0.2377190E-01       0.3970069E-01       0.1975374E+00
      -0.5300764E-01       0.2772939E-01       0.1964623E+00
      -0.3371504E-01       0.4363539E-01       0.1811779E+00
       0.1789909E+00      -0.1442090E+00       0.1479275E+00
      -0.2857737E+00       0.2498192E+00       0.1748420E+00
      -0.2903149E+00       0.2990771E+00       0.1515984E+00
      -0.3040930E+00       0.2890488E+00       0.1609955E+00
      -0.2906095E+00       0.2981616E+00       0.1744575E+00
      -0.2911315E+00       0.2621888E+00       0.1891468E+00
      -0.2231193E-01       0.5170500E-01       0.2083228E+00
      -0.4448566E-01       0.4416450E-01       0.2083643E+00
      -0.1340373E+00      -0.2766899E+00       0.1760442E+00
      -0.1515720E+00      -0.2743770E+00       0.1826889E+00
      -0.1360685E+00      -0.2963690E+00       0.1832091E+00
      -0.1142863E+00      -0.2960620E+00       0.1837114E+00
      -0.1138221E+00      -0.2988322E+00       0.1578791E+00
      -0.1181085E+00      -0.2764900E+00       0.1661276E+00
      -0.1190246E+00      -0.2781568E+00       0.1921747E+00
      -0.1412125E+00      -0.2872466E+00       0.1979201E+00
      -0.1259162E+00      -0.2611130E+00       0.2012839E+00
      -0.1243558E+00      -0.2575171E+00       0.1760103E+00
       0.3071547E+00      -0.7977875E-01      -0.5282030E-01
       0.3054683E+00      -0.9080480E-01      -0.7582898E-01
       0.2896326E+00      -0.7866369E-01      -0.6538705E-01
       0.3080920E+00      -0.6637717E-01      -0.7072020E-01
       0.2890535E+00      -0.7833417E-01      -0.4552789E-01
       0.2893526E+00      -0.9801640E-01      -0.5059968E-01
       0.3025046E+00      -0.8899203E-01      -0.3415523E-01
       0.3272231E+00      -0.8691718E-01      -0.3542668E-01
       0.3087161E+00      -0.1021269E+00      -0.5028684E-01
       0.3251429E+00      -0.8121429E-01      -0.6006721E-01
       0.3069443E+00      -0.6496217E-01      -0.4291296E-01
       0.6983020E-01       0.2584048E+00       0.1755249E+00
       0.6731537E-01       0.2797751E+00       0.1666317E+00
      -0.7141851E-02       0.5657817E-01       0.1818296E+00
       0.7891608E-01       0.2487428E+00       0.1278533E+00
       0.5602463E-01       0.2408223E+00       0.1249810E+00
       0.6596524E-01       0.2314939E+00       0.1495496E+00
       0.2553110E+00      -0.2124234E+00       0.1211016E+00
       0.2417153E+00      -0.2001814E+00       0.1249544E+00
       0.2296060E+00      -0.2098679E+00       0.1419734E+00
       0.2436925E+00      -0.2342489E+00       0.1533530E+00
       0.2434120E+00      -0.2313097E+00       0.1282948E+00
       0.2336461E+00      -0.2119120E+00       0.1610596E+00
       0.1160516E+00      -0.1541958E+00       0.1984145E+00
       0.1124499E+00      -0.1655158E+00       0.1797454E+00
       0.9570231E-01      -0.1809823E+00       0.1754083E+00
       0.9835512E-01      -0.1526211E+00       0.1866124E+00
       0.9751941E-01      -0.1770889E+00       0.2004550E+00
       0.1237600E+00      -0.1731347E+00       0.2001774E+00
       0.2706239E+00      -0.2717686E+00      -0.9221940E-01
       0.2460041E+00      -0.2693570E+00      -0.1084484E+00
       0.2595868E+00      -0.2531777E+00      -0.1082867E+00
       0.2715275E+00      -0.2713115E+00      -0.1090070E+00
       0.2714303E+00      -0.2714230E+00      -0.7545808E-01
       0.2591084E+00      -0.2558498E+00      -0.8859598E-01
       0.2544283E+00      -0.2739567E+00      -0.7558669E-01
       0.2529553E+00      -0.2828560E+00      -0.9231715E-01
       0.2686549E+00      -0.2875467E+00      -0.7573494E-01
       0.2902935E+00      -0.2744331E+00      -0.7284062E-01
       0.2741977E+00      -0.2553467E+00      -0.7518207E-01
       0.2843089E+00      -0.2562493E+00      -0.9593464E-01
       0.2918886E+00      -0.2536659E+00      -0.8123356E-01
      -0.2991850E-02       0.4088769E-01       0.2105391E+00
      -0.1154402E-01       0.2417254E-01       0.2236301E+00
      -0.3037247E-01       0.2278303E-01       0.2053958E+00
       0.2785895E+00      -0.2855033E+00      -0.9809440E-01
      -0.2156695E-01       0.4189697E-01       0.2295821E+00
       0.4318293E-01      -0.6212976E-01       0.1480534E+00
       0.5605454E-01      -0.8827661E-01       0.1414089E+00
       0.4948633E-01      -0.7089825E-01       0.1730631E+00
       0.6579708E-01      -0.1068164E+00       0.1510581E+00
       0.7295495E-01      -0.7347791E-01       0.1728436E+00
       0.8022320E-01      -0.9347668E-01       0.1768508E+00
      -0.4078870E-01       0.1665196E-01       0.1832725E+00
      -0.2523103E-01       0.2367866E-01       0.1849992E+00
       0.2249009E+00      -0.1925020E+00       0.1603836E+00
       0.2147964E+00      -0.2045126E+00       0.1758815E+00
       0.3115125E+00       0.3159859E+00       0.6843641E-01
       0.3151153E+00       0.3272484E+00       0.8231765E-01
       0.3334176E+00       0.3020004E+00       0.8175155E-01
       0.3313903E+00       0.3260885E+00       0.7050001E-01
       0.2175963E+00      -0.1824618E+00       0.1770743E+00
       0.2670428E+00       0.2735023E+00       0.1267603E+00
       0.2522328E+00       0.2836056E+00       0.1176136E+00
       0.2577232E+00       0.2566119E+00       0.1301859E+00
       0.2744629E+00       0.2633222E+00       0.1406519E+00
       0.2650796E+00       0.2892963E+00       0.1461923E+00
       0.2678603E+00       0.2416181E+00       0.1400024E+00
       0.2315290E+00       0.2182008E+00       0.1749888E+00
       0.2566531E+00       0.2061258E+00       0.1773753E+00
       0.2249505E+00       0.1672921E+00       0.1614231E+00
       0.2666515E+00       0.2026069E+00       0.1551491E+00
       0.2216072E+00       0.1970414E+00       0.1745645E+00
       0.2802800E+00       0.2837362E+00       0.1390354E+00
      -0.3343876E+00       0.2552204E+00      -0.1179315E+00
       0.1371083E+00      -0.1852508E+00       0.1213363E+00
       0.1637760E+00      -0.1833362E+00       0.1266664E+00
       0.1435876E+00      -0.1629204E+00       0.1243561E+00
       0.1849792E+00      -0.1406203E-01      -0.1365325E+00
       0.1000048E+00       0.3336232E+00       0.1447807E+00
       0.5378631E-01       0.2078930E+00       0.1451091E+00
       0.7095162E-01       0.2044946E+00       0.1404306E+00
       0.7188194E-01       0.2265227E+00       0.1258346E+00
       0.4730536E-01       0.1968984E+00       0.1580820E+00
       0.5826764E-01       0.1780849E+00       0.1490822E+00
       0.6570981E-01       0.1987937E+00       0.1582007E+00
       0.4951067E-01       0.2096145E+00       0.1249641E+00
       0.2781613E-01      -0.1946440E+00       0.1624116E+00
       0.2925256E-01      -0.1822505E+00       0.1776689E+00
       0.1873539E-01      -0.2143077E+00       0.1744738E+00
       0.2794014E-01      -0.2182938E+00       0.1583924E+00
       0.9212890E-02      -0.2031206E+00       0.1502983E+00
       0.2181464E-01      -0.1798262E+00       0.1427400E+00
       0.1266804E-01      -0.1946674E+00       0.1749686E+00
      -0.2670817E-01       0.1617993E+00       0.1589329E+00
      -0.1306028E-01       0.1563090E+00       0.1846510E+00
      -0.1717903E-01       0.1685548E+00       0.1415560E+00
      -0.2074400E+00      -0.2529478E+00       0.1479438E+00
      -0.2250601E+00      -0.2487198E+00       0.1288645E+00
      -0.1987392E+00      -0.2522328E+00       0.1251937E+00
      -0.2085970E+00      -0.2257769E+00       0.1229921E+00
      -0.2098753E+00      -0.2373971E+00       0.1581812E+00
      -0.2251912E+00      -0.2524198E+00       0.1544714E+00
       0.3894606E-02       0.9166617E-01       0.1682542E+00
      -0.2375159E-02       0.1149106E+00       0.1759700E+00
      -0.1153454E-01       0.8574248E-01       0.1461342E+00
       0.1942304E+00      -0.2490124E-01       0.1622683E+00
      -0.4726332E-02       0.2336188E-01       0.1985146E+00
       0.1993739E+00      -0.6907920E-02       0.1589850E+00
       0.1873996E+00       0.1023792E-02       0.1413926E+00
      -0.5367155E-01       0.1393241E+00       0.1263255E+00
      -0.7483445E-01       0.1157160E+00       0.1262966E+00
      -0.7850017E-01       0.1392403E+00       0.1509129E+00
      -0.1766323E+00      -0.1916070E+00       0.1330771E+00
      -0.1897775E+00      -0.1797584E+00       0.1235514E+00
      -0.2026455E+00      -0.1640093E+00       0.1603278E+00
      -0.1869577E+00      -0.1546085E+00       0.1412026E+00
      -0.1735721E+00      -0.1714731E+00       0.1487248E+00
       0.2223952E+00       0.1743361E+00       0.1754905E+00
       0.2381059E+00       0.1888468E+00       0.1745251E+00
       0.1434791E+00      -0.1117550E-01       0.1602019E+00
       0.1469826E+00       0.1287967E-01       0.1783444E+00
       0.1348577E+00       0.1036095E-01       0.1532922E+00
       0.1324422E+00      -0.6386421E-03       0.1761888E+00
       0.1542919E+00       0.1080607E-01       0.1600961E+00
       0.1600113E+00       0.6000960E-02       0.1413173E+00
       0.1357961E+00      -0.2948273E-01       0.1753484E+00
       0.1484399E+00      -0.3603953E-01       0.1502822E+00
       0.1263138E+00      -0.9936014E-02       0.1592086E+00
       0.1599120E+00      -0.1908350E-01       0.1486148E+00
      -0.1375445E+00       0.1120072E+00       0.1498395E+00
      -0.1541009E+00       0.1166922E+00       0.1599093E+00
      -0.1447023E+00       0.9549113E-01       0.1416629E+00
      -0.1640799E+00       0.1135773E+00       0.1416965E+00
       0.1972072E+00       0.1300475E+00       0.1628494E+00
      -0.2902912E+00       0.2967454E+00      -0.6236913E-01
      -0.2945400E+00       0.3000436E+00      -0.4360971E-01
      -0.2919859E+00       0.2825439E+00      -0.4902633E-01
      -0.2823323E+00       0.3077226E+00      -0.5365880E-01
       0.2058990E+00       0.1139017E+00       0.1574553E+00
       0.2081344E+00       0.1596201E+00       0.1629367E+00
      -0.2972893E+00       0.2881893E+00      -0.7434662E-01
      -0.3102064E+00       0.2750908E+00      -0.5829507E-01
      -0.3168114E+00       0.2940376E+00      -0.5642043E-01
       0.2214665E+00       0.1186092E+00       0.1752470E+00
       0.1961122E+00       0.1124120E+00       0.1751529E+00
      -0.1718203E+00       0.8018549E-01       0.1984889E+00
      -0.1543983E+00       0.8230441E-01       0.1755133E+00
      -0.1841073E+00       0.5894678E-01       0.1881957E+00
      -0.1747208E+00       0.5301990E-01       0.2017011E+00
      -0.3121369E+00       0.2982965E+00      -0.7736259E-01
      -0.2952807E+00       0.2957930E+00      -0.9506804E-01
      -0.3124285E+00       0.2789374E+00      -0.9553657E-01
      -0.1960084E+00       0.6403308E-01       0.1751470E+00
       0.5895758E-01       0.1237241E+00       0.1091817E+00
       0.8894857E-01       0.1483193E+00       0.1260360E+00
       0.6068192E-01       0.1482068E+00       0.1147837E+00
       0.4949102E-01       0.1640816E+00       0.1202767E+00
       0.5576414E-01      -0.1722241E+00       0.1354605E+00
       0.4626917E-01      -0.1850746E+00       0.1241272E+00
       0.3598700E-01      -0.1740053E+00       0.1189887E+00
       0.5482019E-01      -0.1603622E+00       0.1208271E+00
       0.6844909E-01      -0.1873723E+00       0.1249033E+00
       0.3350607E+00      -0.1245585E+00       0.2245463E+00
       0.1082839E+00       0.1616781E+00       0.1588835E+00
       0.1105542E+00       0.1751571E+00       0.1404979E+00
       0.8244629E-01       0.1780476E+00       0.1582973E+00
       0.9981190E-01       0.1975859E+00       0.1625820E+00
       0.2703798E+00      -0.2635093E+00       0.1219551E+00
       0.2836411E+00      -0.2717748E+00       0.1056772E+00
       0.2939375E+00      -0.2730368E+00       0.1210928E+00
       0.2721587E+00      -0.2831987E+00       0.1200484E+00
       0.2704768E+00      -0.2835770E+00       0.1416860E+00
       0.2836396E+00      -0.2701277E+00       0.1414457E+00
       0.2846774E+00      -0.2517421E+00       0.1145854E+00
      -0.8608090E-01       0.2136375E+00       0.1385697E+00
      -0.7870295E-01       0.2166779E+00       0.1123795E+00
      -0.6658574E-01       0.2072520E+00       0.1257102E+00
      -0.7597508E-01       0.1975583E+00       0.1132790E+00
      -0.8348606E-01       0.2374144E+00       0.1588626E+00
      -0.1008592E+00       0.2074469E+00       0.1239756E+00
       0.6189495E-01      -0.3004844E+00       0.1564318E+00
       0.8200879E-01      -0.2889068E+00       0.1659291E+00
      -0.2730983E+00       0.2881888E+00      -0.7515918E-01
      -0.2940143E+00       0.3103672E+00      -0.7815821E-01
       0.8408620E-01      -0.3135610E+00       0.1768048E+00
       0.8254197E-01      -0.2961583E+00       0.1843358E+00
       0.4758337E-01      -0.2884386E+00       0.1701019E+00
       0.5937853E-01      -0.3143646E+00       0.1760989E+00
       0.4321922E-01       0.1015968E+00       0.1695747E+00
       0.3151044E-01       0.8596305E-01       0.1766967E+00
       0.4664516E-01       0.7333607E-01       0.1725687E+00
      -0.1144431E+00       0.1291047E-01       0.1738814E+00
      -0.1329938E+00      -0.2404199E-01       0.1772783E+00
      -0.1114218E+00      -0.3772219E-01       0.1595114E+00
      -0.1750073E+00      -0.2071465E+00       0.1170340E+00
      -0.1636659E+00      -0.2043427E+00       0.1423942E+00
      -0.1553791E+00      -0.1986389E+00       0.1247854E+00
      -0.1548205E+00      -0.1822702E+00       0.1480170E+00
      -0.1673298E+00      -0.1784925E+00       0.1220405E+00
      -0.1843524E+00      -0.1886773E+00       0.1015351E+00
       0.8153252E-02       0.2994943E+00       0.1840821E+00
       0.1778214E-01       0.3145320E+00       0.1895578E+00
       0.2904465E-01       0.2900777E+00       0.1899236E+00
       0.2443895E-01       0.3048932E+00       0.1777766E+00
      -0.7024399E-02       0.2988078E+00       0.1703195E+00
       0.4481514E-02       0.3150324E+00       0.1660564E+00
       0.1435380E-01       0.3015212E+00       0.1573463E+00
      -0.1564719E-02       0.3144094E+00       0.1896901E+00
      -0.8218219E-02       0.2920142E+00       0.1952100E+00
       0.1026607E-01       0.2999209E+00       0.2030071E+00
       0.9647819E-01       0.2310146E+00       0.1412257E+00
      -0.1236027E+00      -0.2465602E+00       0.1400970E+00
       0.1844490E-01       0.1141430E+00       0.1757798E+00
      -0.1656205E+00      -0.4454182E-01       0.1135258E+00
      -0.1645113E+00      -0.3108312E-01       0.1262096E+00
       0.1053123E+00       0.2285810E+00       0.1122766E+00
       0.9836867E-01       0.2478931E+00       0.1012299E+00
       0.9030082E-01       0.2266061E+00       0.1247934E+00
      -0.1273412E+00       0.1975347E+00       0.1374697E+00
      -0.1375384E+00       0.2185273E+00       0.1574592E+00
      -0.1450695E+00       0.2052028E+00       0.1397965E+00
      -0.1153075E+00       0.1842609E+00       0.1248527E+00
      -0.1417378E+00       0.1854155E+00       0.1245322E+00
      -0.1236166E+00       0.2090417E+00       0.1249231E+00
       0.1201334E+00       0.2469048E+00       0.1014205E+00
       0.1909803E+00      -0.1191781E+00       0.1579567E+00
       0.1741375E+00      -0.1023192E+00       0.1746753E+00
       0.2018950E+00      -0.1331707E+00       0.1492870E+00
       0.2206507E+00      -0.1274612E+00       0.1583269E+00
       0.1929862E+00      -0.1136559E+00       0.1746539E+00
       0.1919191E+00      -0.1026751E+00       0.1450717E+00
       0.2577582E+00       0.4309539E-02       0.1766280E+00
       0.2572604E+00       0.2659903E-01       0.1757871E+00
       0.2734339E+00       0.2310998E-01       0.1869897E+00
       0.2822897E+00       0.1621136E-01       0.1715447E+00
       0.2736171E+00       0.2232304E-02       0.1863980E+00
       0.3015581E+00       0.7222218E-02       0.1575093E+00
       0.2975926E+00       0.2708141E-01       0.1700581E+00
       0.2960219E+00       0.1045840E-01       0.1854713E+00
       0.2965389E+00       0.3176739E-01       0.1926770E+00
       0.1342250E-01      -0.1440463E+00       0.1412402E+00
       0.1013932E-01      -0.1340519E+00       0.1214352E+00
      -0.1355713E-01      -0.1134538E+00       0.1076746E+00
       0.1723289E+00      -0.3128624E-01       0.1588086E+00
       0.1783778E+00      -0.2378894E-01       0.1752507E+00
       0.1961072E+00      -0.1107151E-01       0.1756654E+00
       0.1746185E+00      -0.3026945E-02       0.1745412E+00
       0.2150719E+00      -0.9727066E-01       0.1753402E+00
       0.2002155E+00      -0.8476795E-01       0.1769426E+00
       0.1957590E+00      -0.1011245E+00       0.1872826E+00
      -0.1997740E+00       0.2917312E+00       0.1756120E+00
      -0.2157536E+00       0.3153620E+00       0.1442279E+00
      -0.1946975E+00       0.3032372E+00       0.1479227E+00
       0.1176348E+00       0.2258944E+00       0.1239937E+00
      -0.1955033E+00       0.2911572E+00       0.1209883E+00
       0.8168378E-01       0.6799044E-01       0.1575506E+00
       0.9691329E-01       0.5909282E-01       0.1525922E+00
